-70.0782 -29.5472 -1.32647
-70.0708 -27.9966 -1.76515
-70.0528 -26.3685 -2.18683
-70.0268 -24.6751 -2.52888
-69.998 -22.9424 -2.74404
-69.9726 -21.2044 -2.80941
-69.9568 -19.4949 -2.72986
-69.9551 -17.8403 -2.53528
-69.9691 -16.2534 -2.27225
-69.9971 -14.7307 -1.9923
-70.0347 -13.2537 -1.73936
-70.0751 -11.7933 -1.53948
-70.1108 -10.3166 -1.39515
-70.1356 -8.79532 -1.2855
-70.1452 -7.21216 -1.17241
-70.1386 -5.56522 -1.01092
-70.1183 -3.86857 -0.76162
-70.0892 -2.14911 -0.401939
-70.0578 -0.440411 0.0663039
-70.0308 1.22505 0.61494
-70.0133 2.82349 1.19366
-70.0078 4.34545 1.73952
-70.0137 5.79816 2.18958
-70.0276 7.20412 2.49399
-70.0442 8.59615 2.6263
-70.0574 10.0101 2.58894
-70.0624 11.4769 2.41244
-70.0562 13.0155 2.14856
-70.0392 14.6291 1.85909
-70.0144 16.3042 1.60259
-69.9875 18.0143 1.42228
-69.9652 19.726 1.33775
-69.9536 21.4066 1.34226
-69.9572 23.032 1.40619
-69.9775 24.592 1.48579
-70.0126 26.0926 1.535
-70.0576 27.5543 1.51768
-70.1056 29.0074 1.41711
-70.1493 30.4846 1.24079
-70.1822 32.0129 1.01909
-70.2003 33.6078 0.798319
-70.2029 35.2685 0.629609
-70.1922 36.9786 0.556308
-70.1732 38.7093 0.602832
-70.1522 40.4261 0.767603
-70.1353 42.0964 1.0218
-70.1269 43.6972 1.31429
-70.1289 45.2205 1.58169
-70.14 46.675 1.76137
-70.1563 48.0844 1.80446
-70.1723 49.4819 1.68587
-70.1818 50.9031 1.40928
-70.1802 52.3778 1.00574
-70.1652 53.9233 0.526478
-70.1374 55.541 0.0314442
-70.1008 57.216 -0.42371
-70.0615 58.921 -0.79922
-70.0265 60.623 -1.07877
-70.0023 62.2906 -1.2713
-69.9935 63.902 -1.40684
-70.0014 65.4495 -1.5272
-70.0243 66.9417 -1.67404
-70.0573 68.4012 -1.87705
-70.0935 69.8593 -2.14495
-70.1259 71.3488 -2.46183
-70.1485 72.8955 -2.78933
-70.1576 74.5128 -3.07456
-70.1529 76.1978 -3.26183
-70.1369 77.9317 -3.30543
-70.1147 79.6842 -3.18068
-70.0924 81.4196 -2.89053
-70.0757 83.1056 -2.46614
-70.0686 84.72 -1.96138
-70.0721 86.2559 -1.44224
-70.0844 87.7233 -0.973649
-70.101 89.1467 -0.606661
-70.116 90.5595 -0.368705
-70.1232 91.9964 -0.259272
-70.1181 93.4857 -0.251774
-70.0987 95.0425 -0.301161
-70.0661 96.6663 -0.35543
-70.0247 98.3404 -0.368323
-69.9808 100.037 -0.310286
-68.4208 -99.6079 0.174624
-68.4409 -98.0244 0.640912
-68.4728 -96.5115 1.09895
-68.5119 -95.051 1.49537
-68.5519 -93.6135 1.79504
-68.5857 -92.1654 1.98747
-68.6071 -90.6769 2.08726
-68.6124 -89.1288 2.12861
-68.6009 -87.517 2.15525
-68.5752 -85.8534 2.20819
-68.5409 -84.1631 2.3143
-68.5049 -82.4782 2.47837
-68.4742 -80.8305 2.68065
-68.4546 -79.2435 2.88044
-68.4487 -77.727 3.02495
-68.4565 -76.2744 3.06152
-68.4745 -74.8637 2.95017
-68.4974 -73.4629 2.67381
-68.519 -72.0366 2.2435
-68.5337 -70.554 1.6976
-68.5383 -68.9965 1.09488
-68.5321 -67.3611 0.503109
-68.5177 -65.6616 -0.0142913
-68.5 -63.9252 -0.410668
-68.485 -62.1865 -0.66473
-68.4786 -60.4795 -0.783495
-68.4849 -58.83 -0.798997
-68.5051 -57.25 -0.759532
-68.5374 -55.7349 -0.717592
-68.5769 -54.2653 -0.717245
-68.6168 -52.8113 -0.78393
-68.6499 -51.34 -0.919002
-68.67 -49.8232 -1.10023
-68.6734 -48.2442 -1.28814
-68.6595 -46.6019 -1.43656
-68.6312 -44.9107 -1.50496
-68.5938 -43.1979 -1.46954
-68.5543 -41.4966 -1.33052
-68.5195 -39.8385 -1.11364
-68.4944 -38.2462 -0.865703
-68.4818 -36.7277 -0.644899
-68.4809 -35.2744 -0.508161
-68.4882 -33.863 -0.498435
-68.4983 -32.46 -0.634763
-68.5054 -31.0301 -0.907468
-68.5046 -29.5432 -1.27958
-68.493 -27.9816 -1.69418
-68.4711 -26.344 -2.08612
-68.442 -24.6454 -2.39529
-68.4113 -22.9137 -2.57871
-68.3855 -21.183 -2.61852
-68.3707 -19.4863 -2.52421
-68.3708 -17.8475 -2.32874
-68.387 -16.2761 -2.07945
-68.4171 -14.7654 -1.82589
-68.456 -13.2944 -1.60768
-68.4968 -11.8326 -1.44495
-68.5321 -10.3474 -1.33388
-68.5558 -8.81237 -1.24818
-68.5643 -7.21308 -1.14621
-68.5571 -5.551 -0.982138
-68.537 -3.84324 -0.718324
-68.5095 -2.1188 -0.336153
-68.4809 -0.411886 0.157384
-68.4577 1.24592 0.728929
-68.4445 2.83306 1.32413
-68.4429 4.34307 1.87797
-68.452 5.78623 2.32784
-68.4676 7.18743 2.62627
-68.4842 8.58067 2.75064
-68.4959 10.0014 2.70749
-68.4981 11.4788 2.53063
-68.4886 13.0292 2.27335
-68.4682 14.6523 1.99662
-68.4407 16.3322 1.75594
-68.4121 18.0406 1.58983
-68.3893 19.7439 1.51249
-68.3783 21.4106 1.51237
-68.3832 23.0193 1.55676
-68.405 24.5631 1.60131
-68.441 26.0512 1.60211
-68.4862 27.5067 1.52757
-68.5334 28.961 1.36707
-68.5753 30.4464 1.13457
-68.6059 31.9882 0.865992
-68.6218 33.5986 0.611251
-68.6226 35.2738 0.422523
-68.6114 36.9943 0.341634
-68.5933 38.7296 0.389445
-68.5745 40.4445 0.559776
-68.5609 42.1077 0.81933
-68.5564 43.6985 1.11373
-68.562 45.2118 1.37837
-68.576 46.6593 1.55164
-68.5938 48.0669 1.58764
-68.6096 49.4687 1.46542
-68.6174 50.8997 1.19278
-68.613 52.3876 0.803822
-68.5945 53.9469 0.350794
-68.5634 55.5756 -0.10781
-68.5241 57.2563 -0.520128
-68.483 58.96 -0.851852
-68.4474 60.6536 -1.09271
-68.4235 62.3073 -1.25702
-68.4155 63.9019 -1.37838
-68.4243 65.4331 -1.49961
-68.4474 66.9128 -1.66064
-68.4797 68.366 -1.887
-68.5142 69.825 -2.1818
-68.544 71.3219 -2.52318
-68.5635 72.8808 -2.8678
-68.5698 74.5121 -3.15972
-68.563 76.2096 -3.34262
-68.5463 77.9518 -3.37262
-68.525 79.7066 -3.22867
-68.5051 81.4384 -2.91814
-68.4921 83.1159 -2.4763
-68.4893 84.7195 -1.95968
-68.4971 86.2454 -1.43484
-68.5129 87.7064 -0.965053
-68.5319 89.129 -0.597832
-68.5477 90.5474 -0.356123
-68.5544 91.9953 -0.235106
-68.5478 93.4988 -0.205215
-68.5264 95.07 -0.220619
-68.492 96.705 -0.231122
-68.4493 98.3847 -0.194664
-68.4053 100.079 -0.0875358
-66.8415 -99.6232 0.32631
-66.8652 -98.0527 0.75671
-66.9003 -96.5495 1.17013
-66.9419 -95.0927 1.51746
-66.9833 -93.6519 1.76925
-67.0173 -92.1938 1.92098
-67.0381 -90.6902 1.99227
-67.0424 -89.1249 2.02029
-67.0299 -87.4973 2.04909
-67.0039 -85.8223 2.11727
-66.9702 -84.1272 2.24707
-66.9358 -82.4448 2.43741
-66.9076 -80.8059 2.66269
-66.8906 -79.2318 2.87753
-66.8871 -77.7293 3.02662
-66.8963 -76.2885 3.05725
-66.9144 -74.8849 2.93178
-66.9357 -73.485 2.63704
-66.9542 -72.0537 2.18861
-66.9649 -70.5618 1.62874
-66.9648 -68.9932 1.0185
-66.9543 -67.3482 0.425807
-66.9365 -65.6431 -0.0880417
-66.9167 -63.9071 -0.480169
-66.9012 -62.175 -0.733806
-66.8955 -60.4796 -0.860054
-66.9035 -58.8443 -0.893493
-66.9258 -57.2779 -0.882653
-66.9599 -55.7726 -0.877689
-67.0005 -54.3066 -0.918093
-67.0406 -52.8488 -1.02334
-67.0729 -51.3669 -1.1886
-67.0915 -49.8345 -1.38653
-67.0933 -48.238 -1.57461
-67.0782 -46.5796 -1.70633
-67.0496 -44.8769 -1.74354
-67.0131 -43.159 -1.66699
-66.9757 -41.4596 -1.48256
-66.9437 -39.8095 -1.22162
-66.922 -38.2288 -0.935343
-66.9124 -36.7225 -0.684221
-66.9135 -35.2791 -0.525081
-66.9215 -33.8726 -0.498613
-66.9307 -32.4688 -0.620209
-66.9354 -31.0323 -0.876229
-66.931 -29.5352 -1.22657
-66.9155 -27.9626 -1.61298
-66.8898 -26.316 -1.97117
-66.8579 -24.6133 -2.24416
-66.8256 -22.8838 -2.39363
-66.7996 -21.162 -2.40692
-66.7857 -19.4792 -2.29811
-66.7876 -17.8567 -2.10297
-66.8059 -16.3009 -1.86914
-66.8378 -14.8018 -1.64383
-66.8777 -13.3358 -1.46194
-66.9185 -11.8716 -1.33756
-66.953 -10.3772 -1.26057
-66.9755 -8.82815 -1.19947
-66.9827 -7.21299 -1.10951
-66.9749 -5.53656 -0.944336
-66.9553 -3.8189 -0.66841
-66.9295 -2.09081 -0.267221
-66.904 -0.386864 0.247145
-66.8848 1.26257 0.836463
-66.8759 2.83833 1.44283
-66.8785 4.33701 1.99978
-66.8906 5.77184 2.44556
-66.9079 7.1699 2.73555
-66.9244 8.56601 2.85113
-66.9345 9.99501 2.80292
-66.934 11.484 2.6277
-66.9211 13.0462 2.37978
-66.8975 14.6786 2.11878
-66.8676 16.3624 1.89664
-66.8376 18.0679 1.74677
-66.8145 19.7615 1.67785
-66.8043 21.4135 1.67362
-66.8105 23.0052 1.69853
-66.8334 24.533 1.70801
-66.8701 26.0093 1.66066
-66.915 27.4596 1.52971
-66.9609 28.9162 1.31074
-67.0007 30.4105 1.02402
-67.0287 31.9659 0.710727
-67.0422 33.5915 0.423918
-67.0413 35.2802 0.21637
-67.0297 37.0099 0.128027
-67.0125 38.7482 0.17603
-66.9962 40.4601 0.34967
-66.986 42.1154 0.611498
-66.9854 43.6959 0.904407
-66.9946 45.1998 1.16315
-67.0113 46.6415 1.32774
-67.0304 48.0488 1.35566
-67.0459 49.4565 1.23028
-67.0521 50.8986 0.963509
-67.0449 52.4006 0.592189
-67.0232 53.9738 0.16912
-66.989 55.6132 -0.249171
-66.9474 57.2986 -0.61508
-66.905 58.9999 -0.900076
-66.869 60.6842 -1.10003
-66.8457 62.3233 -1.23453
-66.8386 63.901 -1.34045
-66.8481 65.4163 -1.4613
-66.8712 66.8843 -1.6349
-66.9024 68.3321 -1.88242
-66.9349 69.7929 -2.20136
-66.9618 71.298 -2.56411
-66.9781 72.8692 -2.92276
-66.9814 74.5139 -3.21879
-66.9726 76.2228 -3.3958
-66.9553 77.9717 -3.41211
-66.935 79.7273 -3.25046
-66.9177 81.454 -2.92259
-66.9085 83.1221 -2.46752
-66.91 84.7147 -1.94394
-66.9219 86.231 -1.41836
-66.9412 87.6866 -0.951807
-66.9623 89.1098 -0.587823
-66.9789 90.5352 -0.344635
-66.9851 91.9953 -0.213146
-66.977 93.5137 -0.161057
-66.9538 95.0994 -0.142157
-66.9179 96.7452 -0.108502
-66.8744 98.4295 -0.0226059
-66.8305 100.121 0.133182
-65.2629 -99.6418 0.479806
-65.2898 -98.0844 0.870626
-65.3279 -96.5902 1.23577
-65.3717 -95.1363 1.53083
-65.4141 -93.691 1.73232
-65.448 -92.2218 1.84175
-65.468 -90.7025 1.88357
-65.4712 -89.12 1.89766
-65.4579 -87.477 1.92799
-65.4318 -85.7916 2.01044
-65.3991 -84.0927 2.16243
-65.3667 -82.4136 2.37705
-65.3411 -80.784 2.62306
-65.327 -79.2229 2.85086
-65.3259 -77.7336 3.00308
-65.3365 -76.3033 3.02746
-65.3545 -74.9052 2.88898
-65.3741 -73.5047 2.57856
-65.3894 -72.067 2.1161
-65.3959 -70.5651 1.54738
-65.3913 -68.9854 0.935206
-65.3766 -67.3314 0.346979
-65.3555 -65.622 -0.158652
-65.3337 -63.8878 -0.543
-65.3177 -62.1637 -0.79398
-65.3129 -60.481 -0.926701
-65.3225 -58.8605 -0.977985
-65.3467 -57.3077 -0.99617
-65.3823 -55.8117 -1.02863
-65.4236 -54.3483 -1.10992
-65.4634 -52.8858 -1.25337
-65.4946 -51.3924 -1.448
-65.5116 -49.8441 -1.66157
-65.5117 -48.2304 -1.84888
-65.4956 -46.5566 -1.96347
-65.4669 -44.8435 -1.96989
-65.4316 -43.1217 -1.85357
-65.3965 -41.4254 -1.62599
-65.3679 -39.7838 -1.32384
-65.3496 -38.2147 -1.00221
-65.3431 -36.7201 -0.723307
-65.3463 -35.2852 -0.543357
-65.3549 -33.8821 -0.500424
-65.3631 -32.4757 -0.60611
-65.3654 -31.0316 -0.842944
-65.3575 -29.5235 -1.16807
-65.3382 -27.9396 -1.52239
-65.309 -26.2848 -1.84313
-65.2745 -24.579 -2.07692
-65.2408 -22.8532 -2.19047
-65.2148 -21.1415 -2.17649
-65.2021 -19.4736 -2.05353
-65.2058 -17.868 -1.85986
-65.2259 -16.3275 -1.64304
-65.2592 -14.8393 -1.4475
-65.2997 -13.3776 -1.30316
-65.3402 -11.9101 -1.21791
-65.3736 -10.4058 -1.17546
-65.3945 -8.84249 -1.13937
-65.4004 -7.21187 -1.06214
-65.392 -5.52204 -0.897319
-65.373 -3.79577 -0.611775
-65.3492 -2.06542 -0.195209
-65.327 -0.365573 0.33533
-65.3121 1.27484 0.937101
-65.3077 2.83924 1.54919
-65.3143 4.3273 2.1043
-65.3294 5.7551 2.54207
-65.3482 7.15163 2.82116
-65.3645 8.55226 2.92713
-65.373 9.99085 2.87456
-65.3697 11.4922 2.70289
-65.3538 13.0666 2.46696
-65.3272 14.7077 2.22449
-65.2951 16.3944 2.02337
-65.264 18.0958 1.89159
-65.2409 19.7788 1.83222
-65.2315 21.4153 1.8244
-65.2388 22.9898 1.83005
-65.2628 24.502 1.80473
-65.2998 25.9674 1.70992
-65.3441 27.4135 1.5239
-65.3883 28.8733 1.24845
-65.4255 30.3773 0.909986
-65.4507 31.9463 0.55454
-65.4615 33.5866 0.23787
-65.459 35.2878 0.0128826
-65.447 37.0252 -0.0827014
-65.431 38.7651 -0.035599
-65.4172 40.4725 0.139072
-65.4106 42.1192 0.400061
-65.4138 43.6895 0.688068
-65.4267 45.1846 0.937824
-65.4459 46.6216 1.09149
-65.4662 48.0302 1.11036
-65.4813 49.4453 0.982301
-65.4857 50.8998 0.723221
-65.4759 52.4166 0.372389
-65.4512 54.0039 -0.0173001
-65.4143 55.6534 -0.391788
-65.3706 57.3427 -0.708158
-65.3273 59.0405 -0.943917
-65.2914 60.7144 -1.10113
-65.2689 62.3384 -1.20449
-65.2627 63.8991 -1.29386
-65.2727 65.3991 -1.41302
-65.2956 66.8564 -1.5974
-65.3256 68.3 -1.86367
-65.3556 69.7636 -2.2037
-65.3794 71.2774 -2.58445
-65.3923 72.8609 -2.95383
-65.3926 74.5183 -3.2513
-65.3818 76.2373 -3.42088
-65.364 77.9914 -3.42343
-65.3448 79.7461 -3.24567
-65.3303 81.4662 -2.90358
-65.3249 83.1241 -2.43957
-65.3306 84.7055 -1.91393
-65.3467 86.2127 -1.39256
-65.3692 87.664 -0.933625
-65.3923 89.0893 -0.576303
-65.4094 90.523 -0.333929
-65.415 91.9963 -0.193184
-65.4056 93.5302 -0.119312
-65.3809 95.1304 -0.0661239
-65.3438 96.7864 0.0116545
-65.2999 98.4744 0.146604
-65.2566 100.163 0.350152
-63.6851 -99.6635 0.634016
-63.715 -98.119 0.981944
-63.7556 -96.6333 1.2956
-63.8011 -95.1812 1.53569
-63.8441 -93.7304 1.68491
-63.8777 -92.2491 1.75079
-63.8968 -90.7137 1.76244
-63.8988 -89.1141 1.76208
-63.8848 -87.4564 1.79326
-63.859 -85.7614 1.88882
-63.8275 -84.0598 2.06124
-63.7973 -82.385 2.29786
-63.7747 -80.7652 2.56209
-63.7636 -79.2167 2.80056
-63.765 -77.7399 2.95435
-63.7769 -76.3187 2.97213
-63.7947 -74.9245 2.82184
-63.8125 -73.5218 2.4985
-63.8245 -72.0766 2.02619
-63.8267 -70.5639 1.45378
-63.8176 -68.9732 0.845222
-63.7988 -67.3108 0.266814
-63.7747 -65.5983 -0.226007
-63.7512 -63.8673 -0.599102
-63.7349 -62.1527 -0.845204
-63.7309 -60.4838 -0.983295
-63.742 -58.8785 -1.05213
-63.7677 -57.3391 -1.09944
-63.8045 -55.8517 -1.16938
-63.8461 -54.39 -1.29128
-63.8853 -52.9219 -1.47218
-63.915 -51.4164 -1.69505
-63.9302 -49.852 -1.92301
-63.9287 -48.2213 -2.10858
-63.9116 -46.5331 -2.20574
-63.8831 -44.8108 -2.18201
-63.8493 -43.0865 -2.02762
-63.817 -41.3942 -1.75954
-63.7918 -39.7617 -1.41941
-63.7773 -38.2042 -1.06571
-63.7739 -36.7203 -0.761831
-63.7792 -35.2927 -0.562864
-63.7883 -33.8914 -0.503903
-63.7955 -32.4809 -0.592659
-63.7953 -31.0277 -0.807988
-63.7841 -29.5081 -1.10466
-63.7611 -27.9131 -1.4233
-63.7287 -26.2505 -1.7032
-63.6918 -24.5429 -1.89511
-63.6571 -22.8221 -1.97109
-63.6314 -21.1218 -1.9293
-63.6198 -19.4696 -1.7926
-63.6252 -17.8811 -1.60148
-63.647 -16.3558 -1.403
-63.6814 -14.8777 -1.23843
-63.7221 -13.4192 -1.13247
-63.7619 -11.9475 -1.08674
-63.7938 -10.4329 -1.07891
-63.813 -8.85524 -1.06795
-63.8175 -7.2097 -1.00402
-63.8086 -5.50754 -0.840988
-63.7904 -3.77405 -0.548385
-63.7688 -2.04283 -0.120213
-63.7501 -0.348212 0.421687
-63.7395 1.2826 1.03046
-63.7396 2.83575 1.64276
-63.7503 4.314 2.19102
-63.7683 5.73612 2.6169
-63.7884 7.13277 2.88267
-63.8045 8.53952 2.97822
-63.8113 9.98896 2.92197
-63.8054 11.5034 2.75565
-63.7864 13.0899 2.53415
-63.7572 14.7392 2.31277
-63.7232 16.4279 2.1349
-63.6913 18.1242 2.02286
-63.6684 19.7955 1.97405
-63.6599 21.4161 1.96316
-63.6684 22.9733 1.94991
-63.6931 24.4704 1.89037
-63.7302 25.9258 1.74922
-63.7733 27.3689 1.50995
-63.8154 28.8328 1.18053
-63.8498 30.3469 0.793268
-63.8719 31.9297 0.398643
-63.88 33.584 0.0546072
-63.8758 35.2964 -0.186261
-63.8635 37.04 -0.288792
-63.8488 38.7799 -0.243662
-63.8377 40.4818 -0.0702465
-63.8346 42.1192 0.186799
-63.8417 43.6793 0.466528
-63.858 45.1663 0.704253
-63.8796 46.6 0.844832
-63.901 48.0113 0.853743
-63.9156 49.4354 0.723466
-63.9183 50.9033 0.473789
-63.9058 52.4355 0.146076
-63.8784 54.0367 -0.207146
-63.8391 55.6958 -0.534766
-63.7939 57.388 -0.798938
-63.75 59.0813 -0.983409
-63.7146 60.7441 -1.09643
-63.6929 62.3525 -1.1676
-63.6878 63.8965 -1.23942
-63.6983 65.3818 -1.3556
-63.7208 66.8293 -1.54886
-63.7491 68.2699 -1.83123
-63.7765 69.7373 -2.18908
-63.7969 71.2604 -2.5842
-63.8062 72.856 -2.96084
-63.8035 74.5254 -3.257
-63.7907 76.2531 -3.41757
-63.7725 78.0107 -3.40637
-63.7547 79.7628 -3.21416
-63.7429 81.4751 -2.86103
-63.7413 83.122 -2.39238
-63.7513 84.6921 -1.86958
-63.7713 86.1908 -1.35726
-63.7968 87.6389 -0.910234
-63.8217 89.0675 -0.562935
-63.8393 90.5109 -0.323655
-63.8443 91.9984 -0.174962
-63.8336 93.5482 -0.0799372
-63.8076 95.1627 0.00718954
-63.7696 96.8283 0.128631
-63.7258 98.519 0.31177
-63.6835 100.202 0.56171
-62.108 -99.6881 0.787796
-62.1407 -98.1564 1.08992
-62.1835 -96.6784 1.34936
-62.2302 -95.2271 1.53229
-62.2735 -93.7697 1.62772
-62.3064 -92.2756 1.64919
-62.3243 -90.7237 1.63022
-62.3252 -89.1072 1.61499
-62.3107 -87.4355 1.64629
-62.2853 -85.732 1.75365
-62.2554 -84.0288 1.9445
-62.2278 -82.3591 2.20056
-62.2084 -80.7495 2.48028
-62.2004 -79.2134 2.72695
-62.2043 -77.7481 2.88069
-62.2175 -76.3348 2.89152
-62.235 -74.9427 2.73062
-62.2507 -73.5362 2.39718
-62.2594 -72.0822 1.91924
-62.2574 -70.5582 1.34828
-62.2439 -68.9565 0.748844
-62.2212 -67.2866 0.185497
-62.1941 -65.5722 -0.29004
-62.1691 -63.846 -0.648505
-62.1526 -62.142 -0.88752
-62.1494 -60.4877 -1.0298
-62.1619 -58.8981 -1.1157
-62.189 -57.3718 -1.19191
-62.2266 -55.8923 -1.29901
-62.2681 -54.4314 -1.46081
-62.3062 -52.9567 -1.67803
-62.3343 -51.4386 -1.9277
-62.3475 -49.858 -2.16863
-62.3443 -48.2109 -2.35146
-62.3264 -46.5093 -2.43099
-62.2984 -44.779 -2.37801
-62.2664 -43.0535 -2.18758
-62.237 -41.3663 -1.88198
-62.2156 -39.7435 -1.50743
-62.2048 -38.1972 -1.12524
-62.2047 -36.7233 -0.799422
-62.212 -35.3015 -0.583415
-62.2217 -33.9004 -0.509023
-62.2277 -32.4843 -0.579997
-62.2251 -31.0209 -0.771705
-62.2106 -29.4891 -1.03696
-62.1842 -27.8831 -1.31665
-62.1489 -26.2136 -1.55268
-62.1101 -24.5053 -1.70038
-62.0746 -22.7907 -1.73744
-62.0493 -21.1028 -1.66751
-62.039 -19.4672 -1.51758
-62.0461 -17.8959 -1.33003
-62.0693 -16.3854 -1.151
-62.1045 -14.9166 -1.01827
-62.145 -13.4604 -0.951118
-62.1836 -11.9837 -0.944873
-62.2138 -10.4581 -0.971407
-62.2311 -8.86626 -0.985423
-62.2341 -7.20648 -0.935215
-62.2247 -5.49317 -0.775338
-62.2074 -3.75391 -0.47828
-62.1882 -2.02325 -0.0423663
-62.1732 -0.334936 0.505981
-62.167 1.28577 1.11623
-62.1717 2.82789 1.72317
-62.1863 4.2972 2.25962
-62.2071 5.71505 2.66976
-62.2284 7.11343 2.91985
-62.2441 8.52786 3.00419
-62.2492 9.98932 2.9449
-62.2407 11.5174 2.78563
-62.219 13.1161 2.58081
-62.1874 14.7729 2.38282
-62.1519 16.4626 2.23016
-62.1195 18.1527 2.13927
-62.097 19.8115 2.10187
-62.0895 21.4157 2.08843
-62.0991 22.9559 2.05679
-62.1244 24.4385 1.9639
-62.1611 25.885 1.77794
-62.2028 27.326 1.48772
-62.2424 28.7951 1.10733
-62.2735 30.3198 0.674664
-62.2923 31.9161 0.244199
-62.2977 33.5837 -0.124438
-62.2918 35.3061 -0.379465
-62.2793 37.0542 -0.488566
-62.266 38.7927 -0.446445
-62.2576 40.4879 -0.276547
-62.2581 42.1153 -0.0265125
-62.269 43.6654 0.241635
-62.2886 45.1451 0.464387
-62.3125 46.5766 0.58982
-62.3346 47.9922 0.587917
-62.3487 49.4266 0.455871
-62.3496 50.909 0.217195
-62.3348 52.457 -0.0850111
-62.3048 54.0721 -0.399038
-62.2635 55.74 -0.677176
-62.2172 57.4341 -0.88698
-62.1732 59.1219 -1.01859
-62.1384 60.7728 -1.08638
-62.118 62.3655 -1.12459
-62.1139 63.8929 -1.17802
-62.1248 65.3644 -1.28992
-62.1467 66.8034 -1.49004
-62.1731 68.2421 -1.78568
-62.1976 69.7142 -2.15784
-62.2143 71.2469 -2.56354
-62.2199 72.8545 -2.94385
-62.2141 74.5349 -3.23585
-62.1996 76.27 -3.38587
-62.1811 78.0294 -3.36094
-62.1647 79.7774 -3.15599
-62.1558 81.4806 -2.79503
-62.158 83.1157 -2.32604
-62.1721 84.6745 -1.81088
-62.1958 86.1655 -1.31235
-62.2241 87.6115 -0.881393
-62.2505 89.0447 -0.547364
-62.2684 90.4989 -0.313433
-62.2727 92.0015 -0.158181
-62.2609 93.5675 -0.0428394
-62.2338 95.1959 0.0775504
-62.1954 96.8703 0.241765
-62.1521 98.5628 0.471762
-62.1112 100.241 0.766271
-60.5317 -99.7154 0.939961
-60.5668 -98.1962 1.1938
-60.6114 -96.7251 1.3968
-60.659 -95.2735 1.52087
-60.7021 -93.8085 1.56152
-60.7341 -92.301 1.53811
-60.7506 -90.7325 1.48831
-60.7504 -89.0995 1.45792
-60.7355 -87.4146 1.48857
-60.7108 -85.7038 1.60626
-60.6827 -84.0002 1.81333
-60.658 -82.3364 2.08606
-60.6419 -80.7372 2.3783
-60.6373 -79.2131 2.63058
-60.6437 -77.7583 2.78256
-60.658 -76.3512 2.78607
-60.675 -74.9597 2.61581
-60.6887 -73.5478 2.27513
-60.694 -72.084 1.79575
-60.6878 -70.5481 1.23133
-60.67 -68.9357 0.646408
-60.6436 -67.2591 0.103211
-60.6139 -65.5441 -0.350729
-60.5876 -63.8239 -0.691302
-60.571 -62.1317 -0.921071
-60.5687 -60.4929 -1.06629
-60.5824 -58.9189 -1.16856
-60.6106 -57.4055 -1.27316
-60.6486 -55.933 -1.4167
-60.6896 -54.472 -1.6173
-60.7264 -52.9899 -1.8693
-60.7524 -51.4587 -2.14404
-60.7635 -49.862 -2.39635
-60.7586 -48.1992 -2.57541
-60.7401 -46.4854 -2.63724
-60.7127 -44.7486 -2.55611
-60.6828 -43.0232 -2.33196
-60.6567 -41.342 -1.99215
-60.6391 -39.7291 -1.58703
-60.6323 -38.1939 -1.1802
-60.6354 -36.7289 -0.835675
-60.6447 -35.3116 -0.604765
-60.6548 -33.9091 -0.515692
-60.6597 -32.4858 -0.568202
-60.6547 -31.0112 -0.734402
-60.6371 -29.4668 -0.965573
-60.6076 -27.85 -1.20338
-60.5696 -26.1743 -1.3929
-60.5292 -24.4664 -1.49445
-60.4933 -22.7594 -1.49158
-60.4686 -21.085 -1.39341
-60.4598 -19.4663 -1.23086
-60.4684 -17.9123 -1.0478
-60.4929 -16.4159 -0.889129
-60.5284 -14.9557 -0.788785
-60.5684 -13.5006 -0.760453
-60.6055 -12.0181 -0.79327
-60.6335 -10.4812 -0.85353
-60.6487 -8.87542 -0.892107
-60.6502 -7.20222 -0.855866
-60.6404 -5.47905 -0.700468
-60.6242 -3.73552 -0.401574
-60.6076 -2.00684 0.0381573
-60.5964 -0.325867 0.587977
-60.5947 1.28432 1.19415
-60.6039 2.81569 1.79018
-60.6223 4.27704 2.30993
-60.6457 5.69203 2.70058
-60.668 7.09377 2.9327
-60.6833 8.51734 3.00508
-60.6866 9.99189 2.94333
-60.6757 11.5341 2.79265
-60.6515 13.1447 2.60652
-60.6179 14.8085 2.43395
-60.5812 16.4982 2.30818
-60.5486 18.181 2.2396
-60.5268 19.8266 2.21433
-60.5204 21.4142 2.19884
-60.5309 22.9376 2.14944
-60.5565 24.4066 2.02435
-60.5926 25.8452 1.79548
-60.6324 27.2854 1.45708
-60.6691 28.7604 1.02918
-60.6968 30.2962 0.554942
-60.712 31.9058 0.0923192
-60.7146 33.5857 -0.297911
-60.707 35.3167 -0.565221
-60.6944 37.0678 -0.680431
-60.6826 38.8033 -0.642307
-60.677 40.4906 -0.478137
-60.6812 42.1077 -0.238106
-60.6958 43.6478 0.0152609
-60.7185 45.1211 0.220228
-60.7444 46.5518 0.328574
-60.7672 47.9732 0.315089
-60.7805 49.4191 0.181717
-60.7797 50.9169 -0.0444883
-60.7626 52.481 -0.319054
-60.7304 54.1096 -0.591542
-60.6875 55.7856 -0.818051
-60.6405 57.4806 -0.971831
-60.5968 59.162 -1.0495
-60.5631 60.8004 -1.07143
-60.544 62.3772 -1.07623
-60.5409 63.8886 -1.11057
-60.5522 65.3472 -1.21691
-60.5732 66.7789 -1.42178
-60.5975 68.2169 -1.7277
-60.6188 69.6947 -2.1105
-60.6317 71.2374 -2.52282
-60.6336 72.8565 -2.90309
-60.6247 74.547 -3.18808
-60.6084 76.288 -3.32599
-60.5898 78.0475 -3.28742
-60.5749 79.7897 -3.07149
-60.569 81.4826 -2.7059
-60.5749 83.1055 -2.24079
-60.593 84.6531 -1.73796
-60.6201 86.1369 -1.25779
-60.6509 87.582 -0.846887
-60.6786 89.0212 -0.529244
-60.6967 90.4873 -0.302857
-60.7003 92.0056 -0.1425
-60.6875 93.5879 -0.00787687
-60.6597 95.2298 0.14477
-60.6212 96.9123 0.350456
-60.5787 98.6056 0.625517
-60.5396 100.277 0.962326
-58.9563 -99.7451 1.0893
-58.9935 -98.2379 1.29283
-59.0395 -96.7729 1.43766
-59.0874 -95.32 1.50175
-59.13 -93.8466 1.48708
-59.1607 -92.3251 1.41873
-59.1758 -90.7399 1.33817
-59.1744 -89.0909 1.29243
-59.1593 -87.3939 1.32166
-59.1355 -85.677 1.44807
-59.1096 -83.9741 1.66896
-59.0879 -82.317 1.95539
-59.0754 -80.7284 2.25703
-59.0741 -79.2158 2.5122
-59.083 -77.7703 2.66064
-59.0984 -76.368 2.65648
-59.1148 -74.9753 2.47811
-59.1264 -73.5565 2.13305
-59.1282 -72.0818 1.6564
-59.1179 -70.5337 1.1035
-59.096 -68.9109 0.538311
-59.0661 -67.2285 0.0201524
-59.0341 -65.514 -0.408077
-59.0067 -63.8012 -0.727659
-58.9902 -62.122 -0.946081
-58.9887 -60.4991 -1.09293
-59.0035 -58.941 -1.21071
-59.0325 -57.4398 -1.34286
-59.0705 -55.9736 -1.52176
-59.1107 -54.5115 -1.75963
-59.1457 -53.0212 -2.04452
-59.1694 -51.4765 -2.3423
-59.1782 -49.864 -2.60424
-59.1718 -48.1863 -2.77848
-59.1527 -46.4615 -2.82264
-59.1262 -44.7196 -2.71468
-59.0986 -42.9957 -2.45939
-59.076 -41.3215 -2.08896
-59.0625 -39.7189 -1.65739
-59.0597 -38.1943 -1.22998
-59.066 -36.7372 -0.870145
-59.0772 -35.3229 -0.626613
-59.0877 -33.9173 -0.523753
-59.0915 -32.4855 -0.557302
-59.0841 -30.9987 -0.696346
-59.0636 -29.4414 -0.891073
-59.0311 -27.814 -1.08447
-58.9909 -26.1331 -1.22527
-58.9492 -24.4268 -1.27915
-58.9133 -22.7283 -1.23567
-58.8895 -21.0682 -1.10939
-58.8821 -19.4669 -0.934896
-58.8922 -17.9301 -0.757203
-58.9176 -16.4472 -0.619562
-58.9532 -14.9944 -0.551805
-58.9922 -13.5396 -0.561932
-59.0275 -12.0505 -0.63298
-59.0532 -10.502 -0.725991
-59.0661 -8.88261 -0.788443
-59.066 -7.19693 -0.766253
-59.0559 -5.46528 -0.616578
-59.0408 -3.71903 -0.318462
-59.0269 -1.99374 0.121142
-59.0196 -0.321084 0.667445
-59.0224 1.27826 1.264
-59.036 2.79927 1.84367
-59.0582 4.25367 2.34191
-59.084 5.66724 2.70944
-59.1072 7.07391 2.92142
-59.1219 8.50803 2.98112
-59.1235 9.9966 2.91745
-59.1103 11.5533 2.77675
-59.0838 13.1756 2.61111
-59.0485 14.8455 2.46567
-59.0109 16.5342 2.36815
-58.9785 18.2089 2.32278
-58.9576 19.8407 2.31018
-58.9523 21.4116 2.29311
-58.9637 22.9186 2.22673
-58.9895 24.3749 2.07084
-59.0246 25.8068 1.80135
-59.0622 27.2474 1.41795
-59.0957 28.7292 0.94645
-59.1196 30.2763 0.434838
-59.1312 31.8988 -0.0559507
-59.1308 33.59 -0.464544
-59.1217 35.3281 -0.742121
-59.109 37.0806 -0.862892
-59.0988 38.8116 -0.82969
-59.096 40.49 -0.673386
-59.1037 42.0963 -0.446243
-59.1219 43.6269 -0.21071
-59.1475 45.0946 -0.0261768
-59.1752 46.5258 0.0632949
-59.1984 47.9542 0.0375451
-59.211 49.4129 -0.096714
-59.2084 50.9268 -0.309112
-59.1892 52.5071 -0.554179
-59.1552 54.1489 -0.783179
-59.1111 55.8322 -0.956405
-59.0638 57.5271 -1.05303
-59.0208 59.2012 -1.07617
-58.9884 60.8266 -1.05205
-58.9708 62.3875 -1.02326
-58.969 63.8836 -1.03801
-58.9804 65.3303 -1.13754
-59.0004 66.7559 -1.34498
-59.0224 68.1946 -1.65807
-59.0402 69.6788 -2.04769
-59.0492 71.2318 -2.46254
-59.0473 72.8621 -2.83902
-59.0354 74.5616 -3.11411
-59.0174 76.3069 -3.23841
-58.9988 78.0648 -3.18633
-58.9856 79.7997 -2.9612
-58.9825 81.4812 -2.59415
-58.9922 83.0913 -2.13705
-59.014 84.628 -1.65107
-59.0444 86.1055 -1.19362
-59.0774 87.5508 -0.806536
-59.1061 88.9971 -0.508228
-59.1242 90.4761 -0.29151
-59.1271 92.0106 -0.127549
-59.1134 93.6091 0.0251307
-59.085 95.2641 0.20872
-59.0468 96.9536 0.454166
-59.0056 98.6467 0.772052
-58.9687 100.311 1.14847
-57.3818 -99.7769 1.23457
-57.4207 -98.2813 1.38622
-57.4676 -96.8214 1.47172
-57.5155 -95.3662 1.47523
-57.5571 -93.8835 1.40522
-57.5863 -92.3476 1.29227
-57.5998 -90.7459 1.1813
-57.5973 -89.0816 1.12015
-57.582 -87.3736 1.14715
-57.5593 -85.6519 1.28059
-57.5358 -83.9508 1.51272
-57.5175 -82.3011 1.80969
-57.5086 -80.7232 2.11748
-57.5107 -79.2215 2.37273
-57.5221 -77.7842 2.51584
-57.5385 -76.385 2.50363
-57.5542 -74.9895 2.31843
-57.5635 -73.5624 1.97181
-57.5619 -72.0758 1.50197
-57.5476 -70.5152 0.965449
-57.5218 -68.8824 0.424998
-57.4888 -67.1951 -0.0634822
-57.4547 -65.4825 -0.462127
-57.4264 -63.7782 -0.757797
-57.4101 -62.1129 -0.962864
-57.4095 -60.5064 -1.10999
-57.4253 -58.9639 -1.24223
-57.4548 -57.4744 -1.40082
-57.4925 -56.0135 -1.6136
-57.5314 -54.5494 -1.88682
-57.5643 -53.0502 -2.20235
-57.5855 -51.4919 -2.52087
-57.5919 -49.8639 -2.79053
-57.5838 -48.1722 -2.95889
-57.5644 -46.4378 -2.98551
-57.539 -44.6924 -2.85224
-57.514 -42.9712 -2.56864
-57.495 -41.305 -2.17142
-57.4857 -39.7129 -1.71772
-57.4869 -38.1984 -1.27395
-57.4964 -36.7482 -0.902361
-57.5095 -35.3353 -0.648608
-57.5202 -33.9251 -0.532989
-57.5228 -32.4833 -0.547261
-57.5132 -30.9835 -0.657766
-57.49 -29.413 -0.814037
-57.4549 -27.7756 -0.960893
-57.4128 -26.0902 -1.0512
-57.3703 -24.3866 -1.05631
-57.3345 -22.6979 -0.971929
-57.3118 -21.0528 -0.817902
-57.3059 -19.4691 -0.632241
-57.3174 -17.9491 -0.460709
-57.3436 -16.479 -0.34455
-57.379 -15.0326 -0.309259
-57.4166 -13.577 -0.357091
-57.4496 -12.0805 -0.465156
-57.4727 -10.5203 -0.589599
-57.4832 -8.88773 -0.674987
-57.4816 -7.19064 -0.666768
-57.4712 -5.45195 -0.523976
-57.4574 -3.70458 -0.22922
-57.4463 -1.98406 0.206328
-57.443 -0.320626 0.74416
-57.4502 1.26763 1.32564
-57.4682 2.77875 1.8836
-57.4938 4.22728 2.35571
-57.5218 5.64089 2.69665
-57.5458 7.05402 2.88641
-57.5598 8.49996 2.93277
-57.5597 10.0034 2.86766
-57.5444 11.5748 2.73818
-57.5159 13.2084 2.59453
-57.4792 14.8837 2.47764
-57.4412 16.5704 2.40941
-57.4092 18.2361 2.38787
-57.3894 19.8536 2.38831
-57.3853 21.4078 2.3701
-57.3976 22.8991 2.2876
-57.4233 24.3438 2.10259
-57.457 25.7703 1.79509
-57.4921 27.2123 1.37029
-57.522 28.7017 0.859477
-57.542 30.2603 0.315051
-57.5498 31.8952 -0.199635
-57.5465 33.5967 -0.62317
-57.5358 35.3404 -0.908875
-57.5232 37.0926 -1.03458
-57.5146 38.8177 -1.00714
-57.5147 40.4862 -0.860741
-57.5258 42.0814 -0.649232
-57.5474 43.6026 -0.434408
-57.5757 45.0657 -0.272764
-57.605 46.4987 -0.203783
-57.6284 47.9356 -0.242371
-57.6401 49.4081 -0.377081
-57.6358 50.9387 -0.574474
-57.6147 52.5353 -0.788467
-57.5791 54.1896 -0.972444
-57.5342 55.8793 -1.09123
-57.4871 57.5732 -1.1301
-57.4452 59.2391 -1.09865
-57.4145 60.8512 -1.02868
-57.3986 62.3964 -0.966458
-57.3979 63.8778 -0.961256
-57.4095 65.3139 -1.0528
-57.4282 66.7348 -1.26058
-57.4477 68.1753 -1.57762
-57.4619 69.6667 -1.97014
-57.4669 71.2302 -2.38338
-57.4611 72.8711 -2.75227
-57.4464 74.5785 -3.01462
-57.4268 76.3266 -3.12385
-57.4083 78.0812 -3.05842
-57.3968 79.8073 -2.82587
-57.3967 81.4763 -2.4605
-57.4099 83.0733 -2.0154
-57.4352 84.5994 -1.55058
-57.4685 86.0714 -1.11996
-57.5034 87.518 -0.760211
-57.533 88.9725 -0.483983
-57.5508 90.4653 -0.278957
-57.553 92.0164 -0.112931
-57.5385 93.6311 0.0564071
-57.5099 95.2984 0.269315
-57.4723 96.994 0.55242
-57.4328 98.6859 0.910469
-57.3984 100.342 1.3234
-55.8082 -99.8105 1.37453
-55.8484 -98.3258 1.47321
-55.8959 -96.8702 1.49875
-55.9433 -95.4117 1.44164
-55.9835 -93.9189 1.31679
-56.0109 -92.3683 1.15997
-56.0226 -90.7504 1.0192
-56.019 -89.0717 0.942722
-56.0038 -87.3539 0.966701
-55.9824 -85.6287 1.10537
-55.9615 -83.9305 1.34605
-55.9467 -82.2889 1.65026
-55.9416 -80.7216 1.96083
-55.9471 -79.2302 2.21329
-55.9608 -77.7998 2.34927
-55.9781 -76.4022 2.32866
-55.993 -75.0021 2.13787
-56 -73.5653 1.79249
-55.995 -72.0661 1.33343
-55.9769 -70.4928 0.817925
-55.9475 -68.8504 0.306968
-55.9116 -67.1592 -0.147479
-55.8757 -65.4496 -0.512946
-55.8469 -63.7551 -0.781998
-55.831 -62.1043 -0.9718
-55.8312 -60.5146 -1.11783
-55.8478 -58.9876 -1.26331
-55.8775 -57.509 -1.44694
-55.9145 -56.0525 -1.69177
-55.9517 -54.5854 -1.99805
-55.9822 -53.0767 -2.34161
-56.0006 -51.5046 -2.67833
-56.0046 -49.8617 -2.95367
-55.9949 -48.1572 -3.11506
-55.9752 -46.4146 -3.12438
-55.9511 -44.6672 -2.96748
-55.9289 -42.9501 -2.6586
-55.9138 -41.2925 -2.23862
-55.9087 -39.7111 -1.76731
-55.9139 -38.2061 -1.31154
-55.9265 -36.7616 -0.931828
-55.9413 -35.3487 -0.670348
-55.9522 -33.9324 -0.543123
-55.9537 -32.4794 -0.537994
-55.9419 -30.9658 -0.618845
-55.9162 -29.382 -0.735011
-55.8789 -27.735 -0.833636
-55.8353 -26.0461 -0.872134
-55.7923 -24.3463 -0.827833
-55.7571 -22.6683 -0.702604
-55.7357 -21.0389 -0.521459
-55.7314 -19.4729 -0.325485
-55.7442 -17.9691 -0.160834
-55.7708 -16.5108 -0.0664004
-55.8056 -15.0697 -0.0631281
-55.8415 -13.6123 -0.147538
-55.872 -12.1079 -0.291034
-55.8923 -10.5359 -0.445272
-55.9002 -8.89072 -0.552408
-55.897 -7.18336 -0.557919
-55.8864 -5.43917 -0.423076
-55.874 -3.69227 -0.134206
-55.8658 -1.97788 0.293407
-55.8664 -0.324491 0.817896
-55.8781 1.25253 1.37897
-55.9003 2.7543 1.91005
-55.9292 4.19808 2.35158
-55.9591 5.61319 2.66266
-55.9836 7.03423 2.82829
-55.9968 8.49319 2.8607
-55.9951 10.0121 2.79458
-55.9778 11.5983 2.67737
-55.9476 13.2428 2.55696
-55.9099 14.9225 2.46968
-55.8718 16.6064 2.43144
-55.8406 18.2624 2.43408
-55.8221 19.8652 2.44776
-55.8194 21.4029 2.42879
-55.8324 22.8793 2.33116
-55.8577 24.3135 2.1189
-55.8899 25.7358 1.77636
-55.9221 27.1805 1.3141
-55.9482 28.6782 0.76862
-55.964 30.2484 0.196246
-55.9679 31.8951 -0.337835
-55.9617 33.6056 -0.772725
-55.9495 35.3534 -1.06431
-55.9371 37.1036 -1.19423
-55.9302 38.8214 -1.17332
-55.9331 40.4791 -1.03874
-55.9476 42.063 -0.845435
-55.9723 43.5754 -0.653986
-56.003 45.0349 -0.517463
-56.0336 46.4709 -0.470396
-56.0571 47.9174 -0.522276
-56.0677 49.4047 -0.657002
-56.0618 50.9524 -0.838337
-56.0389 52.5651 -1.01997
-56.0021 54.2314 -1.15781
-55.9569 55.9265 -1.22151
-55.9104 57.6183 -1.20255
-55.87 59.2753 -1.11695
-55.8413 60.8738 -1.00179
-55.8272 62.4037 -0.906584
-55.8277 63.8713 -0.881266
-55.8393 65.298 -0.963686
-55.8566 66.7157 -1.16957
-55.8734 68.1591 -1.48729
-55.8839 69.6586 -1.87873
-55.8848 71.2326 -2.28617
-55.8752 72.8836 -2.64369
-55.8576 74.5976 -2.89049
-55.8367 76.3469 -2.98325
-55.8185 78.0966 -2.9047
-55.8087 79.8125 -2.6665
-55.8114 81.4682 -2.30584
-55.828 83.0518 -1.87656
-55.8567 84.5676 -1.43696
-55.8925 86.035 -1.03699
-55.9291 87.4841 -0.707821
-55.9591 88.9479 -0.456206
-55.9766 90.4552 -0.264779
-55.978 92.0231 -0.098242
-55.9629 93.6535 0.0861938
-55.9343 95.3323 0.326519
-55.8977 97.033 0.644812
-55.8602 98.7228 1.03995
-55.8287 100.37 1.48592
-54.2355 -99.8457 1.50793
-54.2767 -98.3711 1.55305
-54.3242 -96.9187 1.51854
-54.3707 -95.456 1.40134
-54.4092 -93.9524 1.22262
-54.4345 -92.387 1.02309
-54.4443 -90.7533 0.853399
-54.4397 -89.0612 0.761791
-54.4245 -87.335 0.781977
-54.4048 -85.6076 0.924012
-54.3866 -83.9134 1.17042
-54.3754 -82.2805 1.4785
-54.3742 -80.7238 1.78839
-54.3831 -79.2419 2.03518
-54.399 -77.817 2.16222
-54.4171 -76.4193 2.13286
-54.4312 -75.0131 1.93776
-54.4358 -73.5653 1.59632
-54.4275 -72.0527 1.15187
-54.4058 -70.4666 0.661785
-54.373 -68.8152 0.184779
-54.3346 -67.1211 -0.231617
-54.2973 -65.4157 -0.560617
-54.2682 -63.7319 -0.800585
-54.2527 -62.0966 -0.973343
-54.2538 -60.5237 -1.11688
-54.271 -59.0117 -1.27424
-54.3006 -57.5433 -1.48122
-54.3366 -56.0901 -1.75594
-54.3718 -54.6191 -2.09262
-54.3995 -53.1003 -2.4613
-54.415 -51.5145 -2.81343
-54.4165 -49.8574 -3.09227
-54.4052 -48.1412 -3.24561
-54.3854 -46.392 -3.23794
-54.3628 -44.6442 -3.05925
-54.3435 -42.9325 -2.72832
-54.3323 -41.2843 -2.28977
-54.3316 -39.7136 -1.80548
-54.3408 -38.2175 -1.34217
-54.3563 -36.7774 -0.958034
-54.3727 -35.363 -0.691392
-54.3837 -33.9391 -0.553827
-54.384 -32.4738 -0.529357
-54.3703 -30.9458 -0.579729
-54.3423 -29.3488 -0.654515
-54.3031 -27.6927 -0.703668
-54.2584 -26.0013 -0.68954
-54.2153 -24.3063 -0.595626
-54.1811 -22.6398 -0.429987
-54.1612 -21.0266 -0.222585
-54.1584 -19.4781 -0.0172506
-54.1723 -17.99 0.139871
-54.1992 -16.5425 0.212555
-54.2331 -15.1056 0.184562
-54.267 -13.6453 0.0650592
-54.2947 -12.1324 -0.11193
-54.3119 -10.5486 -0.294022
-54.3172 -8.89152 -0.421489
-54.3124 -7.17514 -0.440328
-54.3016 -5.42703 -0.314399
-54.2908 -3.68219 -0.0338625
-54.2855 -1.97522 0.382024
-54.29 -0.332637 0.888422
-54.3061 1.23308 1.42394
-54.3322 2.72615 1.92319
-54.3641 4.16634 2.32996
-54.3958 5.58436 2.60812
-54.4206 7.0147 2.74787
-54.433 8.48773 2.76577
-54.4296 10.0227 2.69901
-54.4106 11.6237 2.59494
-54.3789 13.2784 2.49872
-54.3406 14.9618 2.44178
-54.3029 16.6418 2.4339
-54.2728 18.2874 2.46078
-54.2557 19.8754 2.4877
-54.2543 21.3969 2.46832
-54.268 22.8592 2.35663
-54.2928 24.2842 2.11921
-54.3231 25.7037 1.74487
-54.3522 27.1523 1.24942
-54.3743 28.6589 0.674239
-54.3857 30.2407 0.0790442
-54.3857 31.8985 -0.469732
-54.3766 33.6168 -0.91226
-54.363 35.367 -1.20739
-54.3508 37.1137 -1.34074
-54.3456 38.8228 -1.32702
-54.3513 40.4689 -1.20601
-54.3689 42.0413 -1.03329
-54.3966 43.5455 -0.86764
-54.4294 45.0023 -0.75822
-54.461 46.4426 -0.734274
-54.4843 47.8999 -0.799771
-54.4938 49.4027 -0.934074
-54.4863 50.9678 -1.09845
-54.462 52.5964 -1.24674
-54.4243 54.2738 -1.33775
-54.3791 55.9733 -1.34622
-54.3337 57.6622 -1.26992
-54.2952 59.3096 -1.13108
-54.2687 60.8943 -0.971798
-54.2567 62.4093 -0.844374
-54.2583 63.8642 -0.798958
-54.2698 65.2829 -0.871208
-54.2856 66.6987 -1.07296
-54.2994 68.1464 -1.38805
-54.3062 69.6546 -1.77439
-54.3029 71.2392 -2.17187
-54.2896 72.8995 -2.51429
-54.2693 74.6188 -2.74281
-54.2472 76.3677 -2.81779
-54.2293 78.1109 -2.72639
-54.2214 79.8152 -2.4843
-54.2269 81.4569 -2.13126
-54.2468 83.0271 -1.72141
-54.2784 84.533 -1.31082
-54.3165 85.9967 -0.945002
-54.3543 87.4493 -0.649335
-54.3845 88.9234 -0.424606
-54.4015 90.4458 -0.248549
-54.4021 92.0305 -0.0830578
-54.3866 93.6762 0.11477
-54.3582 95.3657 0.380336
-54.323 97.0704 0.730995
-54.2879 98.757 1.15979
-54.2596 100.395 1.63496
-52.6637 -99.882 1.63355
-52.7055 -98.4167 1.62498
-52.7526 -96.9666 1.53089
-52.7978 -95.4986 1.35468
-52.8341 -93.9838 1.12358
-52.8571 -92.4036 0.882871
-52.865 -90.7547 0.685402
-52.8593 -89.0503 0.579006
-52.8444 -87.3169 0.59465
-52.8263 -85.5887 0.73815
-52.8112 -83.8998 0.987408
-52.8037 -82.276 1.29589
-52.8064 -80.7297 1.60164
-52.8186 -79.2564 1.83986
-52.8367 -77.8357 1.95619
-52.8554 -76.4362 1.91776
-52.8684 -75.0224 1.71957
-52.8708 -73.5625 1.38471
-52.8593 -72.0358 0.958501
-52.8341 -70.437 0.49798
-52.7983 -68.7772 0.0590333
-52.7577 -67.0812 -0.315654
-52.7194 -65.3811 -0.605246
-52.6902 -63.7091 -0.813925
-52.6754 -62.0896 -0.967997
-52.6773 -60.5336 -1.10765
-52.6949 -59.036 -1.27537
-52.7242 -57.5768 -1.50378
-52.7588 -56.126 -1.80589
-52.7916 -54.6502 -2.16999
-52.8163 -53.121 -2.56058
-52.8286 -51.5216 -2.92513
-52.8275 -49.851 -3.2052
-52.8148 -48.1244 -3.3494
-52.795 -46.3702 -3.32515
-52.7741 -44.6235 -3.12663
-52.7579 -42.9184 -2.77699
-52.7507 -41.2803 -2.3242
-52.7543 -39.7202 -1.83165
-52.7673 -38.2324 -1.36528
-52.7857 -36.7956 -0.980458
-52.8036 -35.3781 -0.711263
-52.8147 -33.9452 -0.564722
-52.8138 -32.4666 -0.521162
-52.7981 -30.9237 -0.540513
-52.7682 -29.3135 -0.573043
-52.7275 -27.649 -0.571946
-52.6821 -25.956 -0.504858
-52.6394 -24.2669 -0.361605
-52.6063 -22.6127 -0.156365
-52.5881 -21.0159 0.0761825
-52.587 -19.4848 0.289845
-52.602 -18.0115 0.438858
-52.6288 -16.5737 0.48997
-52.6615 -15.1397 0.431765
-52.6931 -13.6757 0.278989
-52.7177 -12.1537 0.0707698
-52.7316 -10.5583 -0.136952
-52.7342 -8.8901 -0.283116
-52.7278 -7.16603 -0.314729
-52.717 -5.41561 -0.198567
-52.7077 -3.67441 0.0712845
-52.7054 -1.97611 0.471778
-52.7139 -0.344982 0.955505
-52.7341 1.20948 1.46054
-52.7639 2.69453 1.92328
-52.7986 4.13231 2.29138
-52.8318 5.55463 2.53384
-52.8567 6.99558 2.64612
-52.8681 8.48361 2.64905
-52.8632 10.0351 2.58194
-52.8425 11.6505 2.4917
-52.8098 13.3148 2.42035
-52.7713 15.001 2.39413
-52.7342 16.6763 2.4166
-52.7055 18.3108 2.46749
-52.6901 19.884 2.50749
-52.6902 21.3899 2.48798
-52.7043 22.8391 2.36338
-52.7285 24.2562 2.10308
-52.7566 25.6744 1.70044
-52.7823 27.1278 1.17636
-52.8001 28.644 0.576696
-52.8071 30.2373 -0.0359779
-52.8032 31.9054 -0.594595
-52.7912 33.6302 -1.04094
-52.7763 35.3811 -1.33721
-52.7645 37.1227 -1.47313
-52.761 38.8218 -1.46713
-52.7693 40.4557 -1.36131
-52.79 42.0166 -1.21132
-52.8203 43.5131 -1.07362
-52.855 44.9683 -0.993013
-52.8872 46.4139 -0.993167
-52.9101 47.8831 -1.07247
-52.9184 49.4021 -1.2059
-52.9094 50.9847 -1.35255
-52.8839 52.6287 -1.46682
-52.8456 54.3165 -1.51074
-52.8009 56.0193 -1.46435
-52.757 57.7042 -1.3317
-52.7207 59.3416 -1.14107
-52.6967 60.9125 -0.939131
-52.6868 62.4132 -0.780547
-52.6896 63.8565 -0.715235
-52.701 65.2687 -0.776357
-52.7151 66.6841 -0.97176
-52.7259 68.1372 -1.28093
-52.7288 69.6547 -1.65819
-52.7214 71.2497 -2.04158
-52.7045 72.9186 -2.36525
-52.6816 74.642 -2.57288
-52.6584 76.3889 -2.62886
-52.6411 78.124 -2.52493
-52.635 79.8156 -2.28067
-52.6433 81.4426 -1.93805
-52.6661 82.9992 -1.55101
-52.7004 84.4959 -1.17289
-52.7404 85.9568 -0.844354
-52.779 87.414 -0.584776
-52.8092 88.8992 -0.388945
-52.8255 90.4371 -0.229873
-52.8254 92.0387 -0.0669697
-52.8095 93.6989 0.142418
-52.7817 95.398 0.430808
-52.7481 97.1056 0.810692
-52.7158 98.7881 1.26935
-52.6909 100.417 1.76961
-51.0928 -99.9192 1.75017
-51.1348 -98.4623 1.68829
-51.1811 -97.0133 1.53563
-51.2245 -95.5393 1.30201
-51.2584 -94.0128 1.0205
-51.2788 -92.4178 0.740531
-51.2846 -90.7545 0.516693
-51.278 -89.0389 0.395988
-51.2635 -87.2999 0.406385
-51.2473 -85.5724 0.549424
-51.2352 -83.8896 0.798607
-51.2316 -82.2755 1.10401
-51.2381 -80.7394 1.40215
-51.2535 -79.2737 1.62895
-51.2736 -77.8558 1.73284
-51.2928 -76.453 1.68505
-51.3048 -75.03 1.48498
-51.3048 -73.5568 1.15921
-51.2903 -72.0155 0.754668
-51.2619 -70.4042 0.32754
-51.2235 -68.7367 -0.0696085
-51.1811 -67.0398 -0.399337
-51.142 -65.3461 -0.646943
-51.113 -63.6867 -0.822415
-51.099 -62.0834 -0.956326
-51.1017 -60.5441 -1.09072
-51.1196 -59.0603 -1.26716
-51.1482 -57.6094 -1.51484
-51.1811 -56.1597 -1.84155
-51.2112 -54.6783 -2.22977
-51.2326 -53.1383 -2.63879
-51.2417 -51.5256 -3.01257
-51.2379 -49.8424 -3.29152
-51.2238 -48.1069 -3.4255
-51.2042 -46.3493 -3.38514
-51.1851 -44.6053 -3.16888
-51.1721 -42.9081 -2.80399
-51.169 -41.2806 -2.34137
-51.1768 -39.7311 -1.84529
-51.1936 -38.2506 -1.38037
-51.2147 -36.8158 -0.998577
-51.2338 -35.3939 -0.729453
-51.2449 -33.9507 -0.575386
-51.2429 -32.4578 -0.513165
-51.2255 -30.8997 -0.501258
-51.1939 -29.2765 -0.491053
-51.1521 -27.6044 -0.439406
-51.1064 -25.9108 -0.319528
-51.0645 -24.2285 -0.127665
-51.0329 -22.5873 0.115984
-51.0166 -21.0071 0.372329
-51.0171 -19.4929 0.593195
-51.033 -18.0335 0.733591
-51.0596 -16.6042 0.763504
-51.0907 -15.1719 0.67642
-51.1197 -13.7031 0.492509
-51.141 -12.1717 0.255627
-51.1516 -10.5649 0.0247535
-51.1514 -8.88645 -0.138276
-51.1434 -7.15608 -0.181966
-51.1326 -5.40499 -0.0763105
-51.125 -3.66899 0.180629
-51.1257 -1.98052 0.562216
-51.1379 -0.361403 1.01891
-51.1621 1.18194 1.48881
-51.1954 2.65973 1.91068
-51.2325 4.09629 2.23652
-51.2669 5.52427 2.44077
-51.2917 6.97702 2.52422
-51.3021 8.48084 2.51177
-51.2957 10.049 2.44457
-51.2737 11.6786 2.36863
-51.2402 13.3518 2.32252
-51.2018 15.0397 2.32706
-51.1658 16.7096 2.37956
-51.1388 18.3326 2.45393
-51.1253 19.8908 2.50664
-51.1267 21.3818 2.48724
-51.1413 22.8192 2.35092
-51.1646 24.2298 2.0702
-51.1903 25.6479 1.64298
-51.2124 27.1074 1.09506
-51.2258 28.6336 0.47636
-51.2283 30.2382 -0.148283
-51.2204 31.9158 -0.711781
-51.2057 33.6456 -1.15806
-51.1896 35.3957 -1.45301
-51.1781 37.1305 -1.59056
-51.1764 38.8186 -1.59274
-51.1873 40.4396 -1.50351
-51.2108 41.989 -1.37814
-51.2434 43.4785 -1.27027
-51.2796 44.9331 -1.21987
-51.3122 46.3853 -1.24485
-51.3345 47.8673 -1.33799
-51.3416 49.403 -1.4701
-51.3311 51.0031 -1.59842
-51.3045 52.6619 -1.67829
-51.266 54.359 -1.67528
-51.2222 56.0642 -1.57489
-51.1802 57.7442 -1.38741
-51.1465 59.371 -1.14689
-51.1252 60.9282 -0.904176
-51.1176 62.4154 -0.715781
-51.1216 63.8483 -0.630966
-51.1327 65.2554 -0.680106
-51.145 66.6719 -0.867006
-51.1528 68.1315 -1.16699
-51.1517 69.6588 -1.53125
-51.1403 71.2642 -1.89651
-51.1199 72.9408 -2.19792
-51.0947 74.6669 -2.38218
-51.0706 76.4103 -2.41807
-51.0538 78.1358 -2.30196
-51.0496 79.8136 -2.05722
-51.0606 81.4254 -1.72765
-51.0862 82.9685 -1.36652
-51.1228 84.4566 -1.02399
-51.1643 85.9157 -0.735499
-51.2034 87.3784 -0.514229
-51.2332 88.8756 -0.349016
-51.2487 90.4293 -0.208372
-51.2478 92.0474 -0.0495689
-51.2317 93.7215 0.169437
-51.2047 95.4292 0.478008
-51.1731 97.1385 0.883686
-51.1438 98.8159 1.36811
-51.1227 100.434 1.88904
-49.5228 -99.9568 1.85662
-49.5646 -98.5073 1.74228
-49.6097 -97.0585 1.5326
-49.6508 -95.5777 1.24371
-49.682 -94.039 0.91422
-49.6997 -92.4295 0.597272
-49.7034 -90.7526 0.348721
-49.6957 -89.0273 0.214325
-49.6818 -87.2842 0.218818
-49.6675 -85.5587 0.359474
-49.6587 -83.883 0.605645
-49.6589 -82.2789 0.904487
-49.6693 -80.7526 1.19159
-49.6878 -79.2936 1.4042
-49.7098 -77.8771 1.49398
-49.7292 -76.4693 1.43659
-49.7401 -75.0357 1.23582
-49.7378 -73.5483 0.921517
-49.7204 -71.9922 0.541831
-49.6892 -70.3685 0.151586
-49.6484 -68.6942 -0.200442
-49.6046 -66.9974 -0.482386
-49.5652 -65.3111 -0.685829
-49.5367 -63.6649 -0.82648
-49.5235 -62.0782 -0.938925
-49.527 -60.5552 -1.06671
-49.545 -59.0844 -1.25013
-49.5728 -57.6406 -1.5147
-49.6036 -56.1911 -1.86295
-49.6307 -54.7032 -2.27171
-49.6486 -53.1521 -2.69545
-49.6543 -51.5266 -3.07514
-49.6479 -49.8318 -3.35054
-49.6325 -48.0888 -3.47323
-49.6132 -46.3295 -3.41731
-49.5961 -44.5898 -3.18548
-49.5863 -42.9015 -2.80887
-49.5873 -41.2852 -2.34084
-49.5993 -39.7459 -1.84599
-49.6196 -38.272 -1.38695
-49.6432 -36.8379 -1.01187
-49.6635 -35.4103 -0.745436
-49.6744 -33.9555 -0.58536
-49.6713 -32.4475 -0.505089
-49.6524 -30.8739 -0.461979
-49.6194 -29.2383 -0.408968
-49.5768 -27.5592 -0.306949
-49.5314 -25.8661 -0.13495
-49.4905 -24.1915 0.104322
-49.4608 -22.5638 0.384823
-49.4465 -21.0001 0.663379
-49.4487 -19.5023 0.890245
-49.4653 -18.0558 1.02158
-49.4915 -16.6337 1.03085
-49.5208 -15.2018 0.916485
-49.5468 -13.7273 0.703861
-49.5646 -12.1861 0.441158
-49.5717 -10.5682 0.18984
-49.5688 -8.88057 0.0119518
-49.5593 -7.14537 -0.0429811
-49.5486 -5.39523 0.0515507
-49.5426 -3.66594 0.293487
-49.5463 -1.98838 0.652844
-49.5622 -0.381742 1.07839
-49.5901 1.1507 1.50881
-49.6266 2.62205 1.88581
-49.6659 4.0586 2.16617
-49.701 5.49353 2.33001
-49.7256 6.95916 2.38348
-49.7349 8.47941 2.35534
-49.7271 10.0643 2.28823
-49.7039 11.7077 2.2269
-49.6701 13.389 2.2061
-49.6322 15.0777 2.24107
-49.5976 16.7412 2.32292
-49.5726 18.3523 2.41997
-49.5611 19.896 2.48486
-49.5639 21.3728 2.46573
-49.5789 22.7995 2.31896
-49.601 24.2051 2.02039
-49.6242 25.6247 1.57251
-49.6424 27.0911 1.00574
-49.6513 28.6278 0.373607
-49.6492 30.2434 -0.257382
-49.6375 31.9295 -0.820734
-49.6202 33.6629 -1.26304
-49.603 35.4106 -1.55418
-49.592 37.1372 -1.69238
-49.592 38.8131 -1.70303
-49.6053 40.4209 -1.63162
-49.6313 41.959 -1.5325
-49.666 43.4421 -1.45598
-49.7033 44.8972 -1.4369
-49.736 46.357 -1.48718
-49.7575 47.8526 -1.59404
-49.7632 49.4054 -1.72435
-49.7514 51.0227 -1.83388
-49.724 52.6956 -1.87926
-49.6857 54.401 -1.82991
-49.6432 56.1074 -1.67687
-49.6035 57.7817 -1.43658
-49.5727 59.3974 -1.14853
-49.5543 60.9412 -0.867293
-49.549 62.4157 -0.65072
-49.5542 63.8396 -0.546978
-49.5649 65.2432 -0.583395
-49.5753 66.6623 -0.759713
-49.5799 68.1294 -1.04733
-49.575 69.6671 -1.39475
-49.5596 71.2825 -1.738
-49.5359 72.9659 -2.0138
-49.5085 74.6934 -2.17237
-49.4837 76.4317 -2.18719
-49.4677 78.1463 -2.05933
-49.4654 79.8093 -1.81574
-49.4788 81.4054 -1.50166
-49.507 82.9353 -1.16927
-49.5455 84.4155 -0.865061
-49.5882 85.8739 -0.61897
-49.6274 87.3431 -0.437843
-49.6565 88.8528 -0.304657
-49.671 90.4224 -0.183698
-49.6693 92.0566 -0.0304613
-49.6532 93.7438 0.196131
-49.6272 95.4588 0.522044
-49.598 97.1686 0.949817
-49.572 98.8401 1.45565
-49.5548 100.448 1.99259
-47.9536 -99.9946 1.95179
-47.9949 -98.5515 1.7863
-48.0383 -97.1017 1.52166
-48.0769 -95.6133 1.18013
-48.105 -94.0622 0.805544
-48.1198 -92.4387 0.454253
-48.1213 -90.7492 0.182883
-48.1127 -89.0154 0.035549
-48.0994 -87.2697 0.0335487
-48.0873 -85.5477 0.169921
-48.0817 -83.8801 0.410174
-48.0857 -82.2862 0.69903
-48.0999 -80.7693 0.971747
-48.1213 -79.316 1.16747
-48.145 -77.8993 1.24159
-48.1646 -76.4852 1.17439
-48.1743 -75.0397 0.974054
-48.1698 -73.5372 0.673469
-48.1496 -71.966 0.321553
-48.1158 -70.3304 -0.0286926
-48.0731 -68.6499 -0.332712
-48.0283 -66.9544 -0.564505
-47.9889 -65.2764 -0.722018
-47.9612 -63.6441 -0.826557
-47.949 -62.0739 -0.916421
-47.9532 -60.5668 -1.03629
-47.9712 -59.108 -1.22487
-47.9978 -57.6702 -1.50376
-48.0262 -56.2197 -1.87025
-48.0501 -54.7247 -2.29574
-48.0643 -53.1623 -2.73029
-48.0665 -51.5244 -3.11242
-48.0575 -49.8192 -3.3818
-48.0409 -48.0703 -3.49214
-48.022 -46.311 -3.42128
-48.007 -44.577 -3.17611
-48.0006 -42.8987 -2.79137
-48.0056 -41.2939 -2.32235
-48.0216 -39.7647 -1.8334
-48.0453 -38.2964 -1.38461
-48.0711 -36.8618 -1.01983
-48.0924 -35.427 -0.75867
-48.1031 -33.9595 -0.594157
-48.0989 -32.4359 -0.496614
-48.0787 -30.8468 -0.422657
-48.0446 -29.1991 -0.327174
-48.0017 -27.514 -0.175445
-47.9569 -25.8223 0.0475102
-47.9176 -24.1562 0.332536
-47.89 -22.5424 0.647968
-47.8778 -20.9952 0.94692
-47.8817 -19.5129 1.1785
-47.899 -18.0782 1.3004
-47.9245 -16.6618 1.28976
-47.9517 -15.2291 1.14994
-47.9746 -13.7481 0.911291
-47.9887 -12.1968 0.625845
-47.9922 -10.5683 0.356991
-47.9865 -8.87251 0.166404
-47.9756 -7.13396 0.101185
-47.9651 -5.38642 0.1841
-47.9608 -3.66527 0.409099
-47.9673 -1.99962 0.743118
-47.9867 -0.4058 1.13369
-48.0181 1.11606 1.52066
-48.0574 2.58185 1.84918
-48.0985 4.01958 2.08123
-48.1343 5.46267 2.20279
-48.1583 6.94215 2.22536
-48.1664 8.47933 2.18132
-48.1573 10.0809 2.11443
-48.1333 11.7375 2.06781
-48.0994 13.4259 2.0721
-48.0624 15.1144 2.13685
-48.0295 16.7709 2.24703
-48.0067 18.3699 2.36568
-47.9974 19.8992 2.44203
-48.0017 21.3628 2.42327
-48.0169 22.7802 2.26734
-48.0377 24.1824 1.95363
-48.0581 25.6048 1.48914
-48.0724 27.0792 0.908667
-48.0767 28.6267 0.268817
-48.0701 30.2529 -0.362832
-48.0545 31.9465 -0.920995
-48.0347 33.6821 -1.35542
-48.0166 35.4258 -1.64027
-48.0061 37.1428 -1.77807
